# .PCD v0.7 - Point Cloud Data file format
VERSION 0.7
FIELDS x y z intensity
SIZE 4 4 4 4
TYPE F F F F
COUNT 1 1 1 1
WIDTH 1431
HEIGHT 1
VIEWPOINT 0 0 0 1 0 0 0
POINTS 1431
DATA ascii
32.156998 -0.67498457 249.85899 6
32.13361 -0.59605521 249.86835 6
3.0152826 -0.33994979 249.80334 8
32.151806 -0.38183692 249.86093 7
32.085529 -0.11367482 249.93146 7
31.967827 0.36858547 249.89769 8
3.9648323 -1.2350856 250.16696 6
13.057894 -1.3150485 250.08447 1.5
13.049217 -1.1103144 250.06598 3.5
13.042012 -0.8794663 250.14702 4
32.095123 -0.59109068 250.19281 6
32.150009 0.26604313 250.07738 8
31.943871 0.43134132 250.02119 8
13.137392 -1.8487804 250.37021 0
22.75761 -1.7360281 250.31467 1
13.109339 -1.4721206 250.36073 0
22.698986 -1.4701391 250.36438 2
13.080051 -1.2301348 250.29437 1.5
22.879522 -1.2270287 250.28323 3
23.98646 -1.3455495 250.25635 3
13.039658 -1.0738181 250.35266 2
32.21648 -1.0689117 250.3517 6
3.891427 -0.74366391 250.22949 7
32.222191 -0.21508661 250.24391 7
32.271122 -0.12914059 250.21777 7
32.207237 0.44126293 250.24594 8
13.24136 -1.8570503 250.479 0
13.115668 -1.6381747 250.44402 5
13.094441 -1.4897032 250.44221 1
13.063683 -1.3071351 250.46974 3
13.070742 -1.0850943 250.50821 4
13.098181 -0.93214655 250.51724 3.5
13.149696 -0.75408006 250.5934 7
32.303185 -0.65175015 250.44257 6
3.0096941 -0.31931001 250.5889 8
13.113123 -1.7009977 250.71605 1
13.05468 -1.493365 250.7995 2
3.8974752 -0.76365411 250.71088 7
32.332809 -0.4337365 250.75772 7
32.262535 -0.23425627 250.68636 7
32.241074 -0.13935545 250.62459 7
13.116535 -1.255452 250.93959 3
13.149565 -1.6427075 251.07268 1
23.536936 -1.7928804 251.15913 2
23.32226 -1.3698672 251.1925 3
13.150735 -1.0351099 251.01817 4
32.292843 -1.133613 251.18393 6
22.703766 -1.6916196 251.29338 2
22.912016 -1.713702 251.2383 2
13.091122 -1.4241097 251.35294 2
22.738424 -1.4046675 251.3269 3
3.9478378 -1.3281184 251.39621 6
23.446983 -1.2078381 251.25555 4
13.15222 -1.0082699 251.38768 4
22.980108 -1.1757759 251.36166 4
-92.880165 6.2269168 251.37474 7
-92.583382 7.0693154 251.34274 8
-91.702408 7.0741549 251.34038 8
22.545095 -1.6310965 251.59909 1
13.193428 -1.3050243 251.58463 3
13.162342 -1.1964152 251.53375 3
13.240349 -1.181247 251.40742 1
22.760183 -1.1623706 251.42804 4
13.219695 -0.94699919 251.44322 3
4.0010681 -0.79576468 251.58615 7
32.394512 -0.47751912 251.49902 7
32.353107 0.21235713 251.50458 8
-90.870834 7.3764524 251.44826 8
13.213578 -1.7425597 251.63182 1
22.680489 -1.7542288 251.7041 2
13.18408 -1.5468456 251.68228 2
13.212465 -1.5375934 251.76259 1
13.141897 -1.3764225 251.70877 2
22.694851 -1.2773174 251.68518 3.5
13.181998 -1.1098865 251.69328 4
13.164818 -0.99068248 251.63268 4
32.428238 -0.74766994 251.60283 6
22.590765 -2.0540257 251.84818 0
13.366755 -1.8843608 251.86349 0
22.562365 -1.6124187 251.82117 1
13.360548 -1.4744726 251.93848 0
22.712162 -1.1621617 251.97302 3
32.458538 -0.66453731 251.80745 6
13.225868 -1.8758185 252.16013 0
13.22588 -1.4905947 252.1369 1
22.590271 -1.5849465 252.01222 1
22.734005 -1.4012034 252.04921 2
13.150824 -1.3380166 252.09604 2
13.298862 -1.2152053 252.02214 1
22.67605 -1.3924668 252.00352 2
13.235428 -1.095351 252.04262 2
13.291077 -0.97619617 252.04729 3
3.0418119 -0.38400126 252.08023 8
32.333939 0.53392452 252.10655 8
13.232605 -1.6991817 252.38741 2
13.252846 -1.445177 252.35014 3
22.678623 -1.5032463 252.32419 1.5
13.235033 -1.2176257 252.35651 4
22.731607 -1.383456 252.27457 2
22.760086 -1.1980084 252.31989 3
22.662287 -1.6438196 252.44061 1
13.348532 -1.3203915 252.43285 0.5
22.853144 -1.3905258 252.48573 2
13.274609 -1.0801998 252.47791 2.5
24.054283 -1.1615708 252.59924 4
23.964357 -1.8792384 252.75629 2
22.741297 -1.718086 252.66728 1.5
22.850946 -1.4703037 252.65952 2.5
23.095352 -1.4670615 252.70395 3
23.976406 -1.5357919 252.78426 3
23.334223 -1.2129123 252.68213 4
5.1431522 -1.1972358 252.75092 6
22.930466 -1.1665649 252.70537 3.3333333
32.383152 -0.67845368 252.64832 6
32.42421 -0.66369426 252.77182 6
32.451401 -0.32323736 252.61517 7
32.329895 -0.19857955 252.73651 7
32.427658 -0.091953784 252.71965 7
32.272171 0.31948069 252.70728 8
-56.709908 6.5127144 252.77388 8
23.16478 -2.0947158 252.88696 0
13.316637 -1.7372364 252.88138 2
22.876328 -1.7511256 252.85899 2
23.207291 -1.7844055 252.86313 2
13.296059 -1.5495123 252.90872 3
22.856533 -1.5893688 252.87643 1
23.463665 -1.4866008 252.83769 3
13.283196 -1.2573513 252.90256 4
22.920109 -1.3841708 252.84135 2
13.310724 -1.0485415 252.87486 5
5.2684565 -0.76897442 252.84061 7
5.5854406 -0.77273047 252.92914 7
2.2867389 -0.44428727 252.83377 8
5.4062347 -0.42973179 252.91718 8
5.5172601 -0.33115712 252.91736 8
-56.356422 5.673171 252.80402 7
-53.9548 5.6535068 252.87917 7
-56.726383 6.5195217 252.88878 8
-53.937981 6.5436168 252.81902 8
13.422832 -1.497841 253.15547 0
5.6922874 -1.1875098 253.01201 6
13.355604 -1.7808926 253.32185 2
13.352661 -1.5019979 253.35179 3
13.408998 -1.5371673 253.32545 0
4.8916454 -1.2278523 253.28856 6
13.319034 -1.2747298 253.2951 2.5
5.1426392 -0.78935122 253.28865 7
-38.887318 5.3182564 253.34941 7
-41.533401 6.0933647 253.20776 8
-38.926125 6.1304288 253.32693 8
13.365772 -1.6735682 253.43497 0
13.414766 -1.4114869 253.46408 1
13.342982 -1.3169918 253.51062 3
4.5135317 -0.76030022 253.50655 7
5.4270697 -0.43677226 253.58267 8
5.0726109 -0.31200504 253.57529 8
32.437649 -0.36596224 253.52972 7
5.3066969 -0.064681321 253.55183 9
13.375779 -1.6522639 253.68507 0
13.374241 -1.531214 253.69989 3
5.2151117 -0.83186221 253.70413 7
32.55616 -0.70949823 253.78391 6
32.502731 -0.26556516 253.6996 7
4.6615677 -0.13453943 253.60345 8
5.3123608 -0.047032744 253.61839 9
32.476887 0.37895602 253.74107 8
13.387241 -1.673256 253.91879 3
5.3491011 -1.2721575 253.94887 6
13.363569 -1.2940129 253.8042 1.5
13.375341 -1.1476972 253.93677 5
13.457098 -1.1701577 253.96222 3
32.516258 -0.91588217 253.87756 6
5.4438839 -0.50686508 253.95967 8
5.4172764 -0.06797117 253.86269 9
32.538696 -0.1219555 253.95891 7
13.42268 -1.6841042 254.05077 2
13.435713 -1.4869599 254.04517 2
13.413514 -1.3124161 254.08278 3
13.465413 -1.188113 254.07878 3
13.430503 -0.97356474 254.04349 4
32.450378 -0.84173 254.08734 6
5.4251623 -0.48222825 254.10172 8
32.568127 -0.30215055 254.15883 7
5.4641142 -0.068316311 254.15749 9
32.370457 0.1713528 254.10667 8
32.405342 0.32057017 254.13605 8
32.508011 0.63878512 254.02321 8
-72.076485 6.4224701 254.05942 8
-69.624161 6.4329991 254.13918 8
13.480547 -1.5297629 254.297 1
13.475145 -1.2243614 254.2935 3
32.486977 -1.2701273 254.34444 5
13.437582 -1.0167087 254.33412 4
5.3559589 -0.8501792 254.21577 7
32.523567 -0.71215165 254.36122 6
32.50626 -0.2896879 254.23241 7
32.465622 0.36165261 254.29805 8
13.491932 -1.9704689 254.51207 0
13.469166 -1.418406 254.56009 2
5.1192799 -1.3248508 254.46509 6
13.508244 -1.2606311 254.5204 3
5.4362221 -0.44072491 254.43977 8
32.46209 -0.25221339 254.41301 7
32.313904 0.28445449 254.43532 8
13.506695 -1.8836598 254.7027 1
13.685842 -1.9725025 254.67734 0
13.470177 -1.6432025 254.66205 1.5
13.489246 -1.4226894 254.70845 3
13.486161 -1.135412 254.74467 4
32.58514 -0.90616298 254.66676 6
32.615952 -0.9175657 254.70975 6
32.609707 -0.72403032 254.65106 6
32.521523 -0.26371229 254.72791 7
32.620518 -0.32348391 254.77606 7
32.885426 -0.12234032 254.60626 7
32.422623 0.14812431 254.6947 8
32.386723 0.27375475 254.79468 8
22.765289 -1.5283254 254.91269 1
22.823721 -1.1301899 254.93755 3
32.605511 0.35022581 254.84958 8
32.882931 0.59994161 254.93427 8
13.511245 -1.2995231 255.16563 1.5
22.784613 -1.2842128 255.07408 2
22.806793 -1.3443279 255.17856 2
33.012325 -0.85675299 255.11534 6
32.715775 -0.27983147 255.16533 7
32.794167 -0.18474948 255.16702 7
22.807579 -1.6097856 255.38397 1
22.904844 -1.4276806 255.35236 2
13.529696 -1.2946576 255.37723 1.5
13.520959 -1.1577265 255.2915 4
22.802006 -1.1392133 255.34831 3
32.787979 -0.14536023 255.37395 7
13.519557 -1.5837181 255.41866 2
22.756466 -1.5438913 255.46291 1
22.84309 -1.361258 255.461 2
13.557198 -1.1868646 255.46606 4
32.976597 -0.81789589 255.43968 6
32.969749 -0.19705534 255.54474 7
13.815189 -2.0528641 255.75056 0
13.63382 -1.8684146 255.79561 1
22.778063 -1.6297247 255.74571 1
13.574951 -1.4309608 255.67635 3
22.845566 -1.4772346 255.62691 2
22.919411 -1.2914021 255.79961 3
13.579956 -1.0615902 255.77196 5
32.907944 -0.29992723 255.71349 7
13.661214 -2.0587716 255.94318 0
13.606816 -1.7143614 255.8139 1
23.012156 -1.5355175 255.98897 2
13.570397 -1.2294948 255.94484 2
13.631617 -1.3292637 255.88535 2
13.608948 -1.1096809 255.8855 3.5
23.560335 -0.34390581 255.80534 7
23.718613 -0.20915225 255.80798 8
23.613016 -0.078720212 255.81499 8
33.001381 -0.16254693 255.98383 7
13.755969 -2.049715 256.1973 0
13.617929 -1.7449379 256.14648 2
22.902573 -1.6224654 256.056 1
13.627111 -1.5160886 256.13785 3
23.365211 -1.4387752 256.11288 2
13.623254 -1.286386 256.08029 4
13.64769 -1.0690243 256.09009 5
11.414698 -0.48059314 256.14246 8
13.662643 -2.054893 256.32138 0
13.600359 -1.8527933 256.22714 3
13.635245 -1.6579192 256.23697 1
23.117266 -1.6456599 256.21024 1
13.594259 -1.3841844 256.24088 2.5
13.625693 -1.0831089 256.25339 4
33.028397 -0.83414245 256.38602 6
32.807201 0.23489812 256.24939 8
33.007912 0.21344373 256.32935 8
33.011986 0.52792704 256.31335 8
33.058792 -1.0390389 256.44818 6
32.899002 -0.41620481 256.41159 7
32.882439 -0.22625312 256.44165 7
13.602002 -1.268707 256.63715 2
13.705893 -1.1644185 256.76697 5
32.945568 -0.23923802 256.79962 7
13.680585 -1.8869841 256.91949 2
13.702566 -1.6567048 256.8222 1.5
13.80292 -1.5740327 256.9588 0
32.804306 -0.8365038 256.95718 6
13.735244 -1.5016229 257.04816 2
32.8269 -1.4400316 257.07169 5
28.38154 -0.75721014 257.19168 6
28.158062 0.028893456 257.08911 8
28.339611 0.012810498 257.15195 8
28.455589 0.04093641 257.12775 8
32.903984 0.34863424 257.19086 8
23.711573 -1.8972521 257.34857 2
24.080343 -1.453311 257.36572 3
13.763302 -1.2505463 257.36932 5
23.562273 -1.2043103 257.37408 5
23.951479 -1.2195683 257.32031 5
24.591774 -1.2113755 257.34744 4
28.386208 -1.1701491 257.32349 5
33.287918 -0.85939133 257.30569 6
28.358818 -0.77427161 257.28265 6
28.355005 -0.48928127 257.27802 7
28.298252 -0.32493603 257.30591 7
28.042017 -0.066000342 257.21658 8
13.771265 -1.855113 257.57159 0
23.296646 -1.821106 257.44836 1
13.744328 -1.761189 257.40652 3
23.512787 -1.6272591 257.42789 2
13.776957 -1.5471718 257.56403 1
23.268591 -1.5617428 257.54788 3.6666667
23.902111 -1.5995235 257.46939 4
33.266331 -1.4692647 257.47079 5
13.727929 -1.3958349 257.55826 2
23.394915 -1.367331 257.4874 3
23.596876 -1.1600543 257.50085 4
23.688194 -1.0641848 257.53113 6
28.396217 -0.7706542 257.47021 6
28.309193 -0.34674054 257.44522 7
28.451574 -0.33830941 257.5062 7
33.545288 -0.26336819 257.51678 7
28.2232 0.00061360002 257.40637 8
13.827301 -1.6545917 257.73785 0
23.256781 -1.6065679 257.66367 2
13.76025 -1.4625473 257.68054 1.5
23.298052 -1.4925966 257.7576 2
23.27351 -1.2891035 257.6167 4
23.549097 -0.91674048 257.60358 5
28.186825 0.090773225 257.62344 8
28.308187 0.20282495 257.70328 8
33.290268 0.33851433 257.64856 8
23.18648 -1.8474712 257.92761 2
13.807456 -1.7028948 257.9512 0
23.110256 -1.6624227 257.84348 1
13.781454 -1.5068319 257.89484 2.75
23.268351 -1.5640461 257.81522 3
23.285416 -1.3038158 257.82632 4
33.17054 0.15920931 257.87778 8
13.772632 -1.6591287 258.0119 3
23.326019 -1.4915798 258.00305 2
4.8553286 -0.61506832 258.13815 8
11.569586 -0.66265124 258.12329 7
13.829124 -1.881016 258.39832 2
23.215834 -1.6019934 258.21161 2
5.109931 -1.5121924 258.34418 6
23.380894 -1.4761662 258.36523 2.5
23.233345 -1.195456 258.33493 4
32.946503 -0.8754648 258.39865 6
4.9615202 -0.54250181 258.30487 8
32.957626 -0.41222805 258.32925 7
13.831689 -1.9022985 258.45831 3
23.171158 -1.7856774 258.47214 2
23.341637 -1.4908015 258.5799 3
23.42425 -1.5052923 258.55167 2
32.94582 -1.4469906 258.47833 5
13.816434 -1.3810787 258.42938 4
23.317202 -1.2587032 258.56204 4
5.2133732 -0.9964627 258.52045 7
32.952015 -0.8717615 258.45319 6
4.9370461 -0.62638777 258.51877 8
32.983429 -0.52207839 258.41797 7
32.956562 -0.29463923 258.40396 7
32.778866 0.14446026 258.48608 8
32.997688 0.13091221 258.41986 8
23.289072 -1.9035777 258.61682 1
5.1118612 -1.4819413 258.69144 6
23.288773 -1.2665255 258.70599 3
5.1008501 -1.0674067 258.66351 7
11.664825 -0.79877186 258.6424 7
5.3813343 -0.55206931 258.67245 8
11.672182 -0.5687927 258.62753 8
13.879947 -1.6898317 258.84674 2.5
23.303581 -1.6847783 258.87512 2.25
5.0785437 -1.5396559 258.80701 6
13.833504 -1.5290617 258.95239 2
23.346989 -1.4986436 258.86417 3
13.866793 -1.3633795 258.85281 3
23.394213 -1.2149509 258.84195 4
5.3196182 -1.0106049 258.96872 7
13.852502 -1.1582937 258.94254 4
23.361988 -1.1930823 258.88867 5
5.262846 -0.62864327 258.83838 8
13.895992 -2.097611 259.02744 0
14.038778 -2.0960999 259.15146 0
24.503368 -2.0242591 259.09531 3
23.94714 -1.9837092 259.16666 3
13.869701 -1.7062925 259.0444 2.5
23.345573 -1.6984777 259.05774 1
23.897425 -1.6078496 259.17719 4
24.544449 -1.6414331 259.13055 4
5.3573685 -1.4718916 259.00027 6
23.487772 -1.5206163 259.03232 2
13.872698 -1.3787159 259.05377 4
23.484337 -1.2743479 259.04318 3.5
23.856918 -1.2670712 259.17178 4
24.211708 -1.2038684 259.11429 5
24.543144 -1.2147486 259.08643 5
5.2047691 -1.0777717 259.03491 7
23.563366 -1.0968441 259.02466 4
23.569229 -0.93069005 259.00519 5
23.648872 -1.7676373 259.21716 2
5.2202077 -1.5245724 259.30432 6
13.878918 -1.5942233 259.32373 2
23.570709 -1.4835945 259.20657 3
23.795025 -1.5056822 259.21246 3
5.1898308 -1.0340877 259.32541 7
5.2678785 -1.0885876 259.3588 7
5.2871666 -0.64334655 259.26828 8
5.4892435 -0.57820863 259.26562 8
13.938583 -2.0108478 259.56686 1
13.93774 -1.8026524 259.52725 1
13.927177 -1.7863935 259.41589 1
5.3491011 -1.5548226 259.55563 6
13.953232 -1.5400422 259.5354 2
13.929258 -1.3599685 259.53741 3
5.4573193 -0.65036523 259.5983 8
33.025105 -0.43228438 259.58255 7
33.036171 -0.35200247 259.46277 7
32.838627 0.12539026 259.42465 8
13.932579 -1.7869228 259.69464 1
13.989217 -1.5162721 259.66675 1
33.079105 -1.4995207 259.68405 5
13.925251 -1.3847563 259.64856 2
5.2097664 -1.1115221 259.78595 7
33.103836 -0.9393813 259.71024 6
33.031879 -0.47672534 259.71622 7
32.896656 0.089046001 259.71661 8
13.995951 -1.9417244 259.98248 1
5.4186687 -1.5026793 259.87234 6
5.4101753 -1.0495282 259.94067 7
5.5566025 -0.6337148 259.90332 8
13.920813 -1.7589601 260.15109 2
13.973937 -1.5116271 260.04364 3
14.031871 -1.5058661 260.0896 1
33.47765 -1.5525876 260.17651 5
13.981318 -1.3373837 260.06415 3
14.020049 -1.2565062 260.14536 3
5.3685322 -1.1142064 260.04187 7
14.011006 -2.005187 260.38733 1
14.018085 -1.9017813 260.25409 1
13.979423 -1.7008328 260.30618 2
13.946411 -1.3458747 260.2222 4
5.3381767 -1.0689288 260.26315 7
5.3645906 -0.63547963 260.38361 8
13.90964 -1.9471915 260.59814 2
14.031098 -1.8617351 260.55096 1
13.934074 -1.6861556 260.53802 2
14.078398 -1.7756197 260.59106 0
5.3336716 -1.5365379 260.42447 6
13.86305 -1.485845 260.59833 3
14.035546 -1.4599732 260.58075 3
14.019833 -1.2589887 260.57907 4
33.642773 -0.99759048 260.4852 6
13.985093 -1.664842 260.63974 4
14.101138 -1.7831874 260.79819 0
33.567242 -1.5870271 260.73221 5
13.791912 -1.2885251 260.60458 4
5.5972099 -0.64364755 260.64865 8
14.015934 -1.9103484 260.8999 2
14.013094 -1.6773639 260.90482 3
14.024956 -1.4507639 260.90381 4
14.112902 -1.2768068 260.91415 3
5.5519981 -1.0833676 260.81329 7
33.227798 -1.0055039 260.96686 6
5.5452824 -0.65863675 260.93164 8
33.112232 -0.53873491 260.99072 7
5.4655666 -1.5575442 261.08951 6
5.3315573 -1.1109838 261.1066 7
33.036026 0.0053957701 261.00803 8
14.063614 -1.7336223 261.22833 3
5.6655884 -0.67545021 261.33911 8
33.207993 0.027549803 261.26245 8
14.111353 -1.9798849 261.54446 2
14.120453 -1.7907968 261.55447 3
14.114241 -1.5106394 261.58121 4
14.154665 -1.302974 261.46304 4
33.265007 -0.97003537 261.53616 6
28.248064 -2.0767999 261.6785 3
28.265194 -1.9851388 261.72989 3
14.138289 -1.7863729 261.62024 0
28.288023 -1.7168734 261.64789 4
14.138741 -1.5230172 261.62115 1.5
14.064941 -1.0793837 261.68854 5
28.276878 -0.9360261 261.73169 6
28.264271 -0.54178166 261.72681 7
28.326904 -0.20706379 261.7373 8
28.308487 0.17531401 261.79446 9
28.165241 -0.0097034574 261.88907 8
7.2531643 -1.1118529 262.12906 7
33.33992 -0.9943397 262.1687 6
11.131481 -0.67409414 262.14127 8
14.109011 -1.8311403 262.27753 0
13.908064 -0.61939782 262.55609 8
14.029772 -1.0194538 262.7836 6
14.002975 -0.90271187 262.60251 7
14.154867 -0.62213647 262.79614 8
14.046272 -1.1632545 262.95081 6
14.126705 -0.86775506 262.84033 7
14.366696 -0.93095684 262.85867 6
13.640818 -0.65209806 262.8317 8
14.117133 -0.70088136 262.90729 8
14.284184 -0.7462371 262.93353 7.5
33.36956 -0.56264973 262.85724 7
14.011003 -1.5184622 263.00644 3
13.986342 -1.3040755 263.01331 4
14.206856 -1.0255667 263.01794 6
14.174025 -0.86756676 263.04761 7
24.456461 -2.2264104 263.54593 3
24.389202 -2.0084896 263.51941 2
24.024057 -1.9615464 263.5914 2
24.552546 -1.8701013 263.59357 4
24.604774 -1.9330444 263.57626 5
24.451035 -1.7426512 263.56149 3
12.036602 -1.4478097 263.51831 5
14.246282 -1.2263274 263.56232 5
14.232045 -0.91265035 263.59201 7
33.27747 -0.054587483 263.56619 8
14.32707 -1.9181846 263.65021 2
23.994259 -1.8495795 263.71042 4
25.752842 -1.9849199 263.68726 5
25.942282 -1.9049934 263.70807 4
26.95451 -1.9892213 263.7919 4
24.106909 -1.7099645 263.6489 3
14.319107 -1.4895602 263.77054 4
24.194021 -1.4831126 263.68118 4
24.213219 -1.4527388 263.67044 5
24.551952 -1.4885445 263.62878 4.5
25.453001 -1.4067479 263.68683 6
25.914036 -1.5301348 263.67264 5
26.009064 -1.4163634 263.70322 6
26.866543 -1.5823669 263.71121 5
24.657944 -1.3987732 263.70349 6
25.926525 -1.1027092 263.71063 6
33.427414 -1.1509522 263.73309 6
14.278198 -0.60461831 263.74347 8
14.361094 -2.1647167 263.98126 1
11.069938 -1.8643427 263.96222 4
23.879917 -1.8732439 263.92142 4
9.9963179 -1.611685 263.95667 5
24.137863 -1.7566669 263.97055 3
29.974545 -1.6037683 263.83099 5
10.699627 -1.5314949 263.96243 5
11.268095 -1.5265102 263.92627 5
11.575531 -1.4926691 263.89249 5
24.018959 -1.4769725 263.94821 5
9.474081 -1.3538575 263.96521 6
10.054284 -1.3025548 263.92883 6
10.88567 -1.2304878 263.91583 6
11.253035 -1.3074098 263.96933 6
14.340263 -1.2455561 263.80878 5
11.321674 -1.1931412 263.87143 6
11.718266 -1.1604187 263.90399 6
27.369545 -1.1466759 263.81207 6
30.202566 -1.1613202 263.94858 6
9.5034742 -0.98828179 263.99902 7
10.405882 -0.93616867 263.97684 7
10.923908 -0.9070664 263.95593 7
11.607655 -0.86764848 263.90546 7
14.307667 -0.93381667 263.84622 7
25.990301 -0.66219884 263.81454 7
26.988922 -0.66336358 263.88843 7
33.334503 -0.12101436 263.86203 8
13.868393 -2.1377802 264.0318 0
8.2710314 -1.8122194 264.06485 5
13.645622 -1.9404037 264.13028 2
14.250664 -1.9485322 264.03366 2
23.770477 -1.9198573 264.08185 1.5
9.5977964 -1.6571569 264.00131 5
10.751629 -1.7849867 264.00415 5
14.339903 -1.6954296 264.04114 3
23.906887 -1.7053094 264.05859 2.5
14.346292 -1.4622512 264.10968 4
24.052547 -1.4704211 264.01016 3
8.6512127 -1.3744011 264.05698 6
14.133771 -1.2771518 264.01688 5
14.291394 -1.2362664 264.14178 5
8.271821 -0.98969638 264.14111 7
30.26223 -0.60069978 264.02393 7
14.27401 -2.1423278 264.26282 1
23.894554 -1.7019638 264.3429 2.5
33.506111 -1.1696808 264.3147 6
7.3625889 -0.43627092 264.20233 9
33.326508 -0.14396286 264.33734 8
33.486805 0.26004136 264.27032 8
14.437205 -2.084022 264.51242 1
23.743889 -2.0711646 264.49481 1.5
14.28105 -1.9307914 264.58945 2
23.801525 -1.7805302 264.42709 3
23.875338 -1.5665665 264.59634 4
33.532433 -1.1613381 264.59418 6
33.546223 -0.45857698 264.41422 7
23.781317 -2.0482588 264.77673 1
14.367712 -1.9779259 264.64804 4
14.300815 -1.6794667 264.64087 4
14.445189 -1.7184501 264.68088 3
14.266316 -1.5179186 264.60754 4
14.4152 -1.5040717 264.62329 4
14.231132 -1.3592889 264.66443 5
14.442257 -1.3484802 264.69208 4
14.347702 -1.1235548 264.65393 5
14.491945 -2.1942282 264.97443 1
23.938429 -1.817091 264.98428 2
23.778048 -1.7373037 264.91147 2
23.870249 -1.6951382 264.93909 2
14.442047 -1.5598514 264.96097 4
33.342094 -0.16994497 264.90854 8
33.573284 0.21833825 264.99704 8
14.356627 -2.0302444 265.00821 1
14.447529 -2.0159531 265.07599 2
23.808371 -2.1597581 265.00903 2
14.468389 -1.9245322 265.11563 0
23.855707 -1.8958406 265.11246 2
14.449034 -1.7930665 265.06516 3
23.932999 -1.6878309 265.13901 2.6666667
14.43054 -1.4058158 265.10379 5
24.002575 -1.5136107 265.15314 3
33.604656 -1.1694212 265.15295 6
33.605766 -0.48229098 265.07559 7
14.497286 -2.3420773 265.29117 0
23.85018 -2.004658 265.32562 1
24.091152 -1.8111023 265.37613 2
24.884336 -1.869155 265.34769 2
24.332405 -1.3600686 265.36111 4
27.924215 -0.54115844 265.27563 7
14.390398 -2.3392131 265.49008 0
24.093746 -2.0373006 265.45908 1
24.539616 -2.071301 265.50409 2
24.814093 -2.04531 265.5842 3
25.235252 -2.1726942 265.52356 1
25.697239 -2.0752525 265.52081 3.5
26.081409 -2.0460272 265.59448 2
26.457701 -2.152467 265.57883 2.5
14.398592 -1.9662369 265.48505 1
24.826731 -1.9911268 265.43985 4
25.121433 -1.8645525 265.52789 3.5
25.804501 -1.8347795 265.57443 5
26.461653 -1.8460522 265.56769 5
27.713615 -1.8747495 265.53537 5
24.248146 -1.7652991 265.48053 2
24.571686 -1.6587737 265.51169 3.5
24.90501 -1.7155858 265.56686 4
25.189323 -1.6326387 265.55774 3
25.822948 -1.7107054 265.55685 4
24.156858 -1.5716143 265.42657 3
24.823233 -1.4938936 265.48685 5
25.570143 -1.5088761 265.56418 5
24.582008 -1.2694228 265.52036 4.5
25.233459 -1.3980056 265.55212 4
25.785046 -1.3884456 265.56754 5
27.69972 -1.2070051 265.57434 6
25.732914 -1.0138081 265.58789 6
25.916378 -1.0096347 265.51831 6
26.472481 -1.1985883 265.54062 6
26.157791 -0.89179134 265.55624 6
26.569416 -0.91006315 265.57507 6
25.147417 -0.68990648 265.42862 7
25.724257 -0.69528449 265.5166 7
27.237944 -0.63553518 265.59637 7
25.810455 -0.58811343 265.4472 7
27.116903 -2.2139914 265.63638 2
14.38958 -2.1720924 265.70679 2
27.536205 -2.1066334 265.60764 4
27.927755 -2.1288037 265.60739 4
27.086136 -1.9771793 265.6813 4
27.518538 -1.9221931 265.6814 3.5
26.233795 -1.7637004 265.62903 3
26.062382 -1.4849948 265.62204 4
27.095106 -1.5260835 265.68466 4.5
27.902905 -1.5032167 265.74286 5
24.760981 -1.3382781 265.60431 5
26.544979 -1.2333237 265.62198 5
27.498409 -1.2468283 265.68112 5
27.19129 -1.0570289 265.66595 6
28.170286 -1.0901738 265.69769 6
27.648779 -0.95931059 265.62665 6
33.479538 -0.11466581 265.71915 8
14.464502 -2.2063236 266.16153 2
33.620644 -1.7978435 266.16327 5
33.655449 -0.61850166 266.16992 7
33.502213 -0.10462427 266.10364 8
14.452586 -2.026974 266.21582 3
-3.2813454 -1.6209202 266.28506 7
33.816185 -1.0866528 266.25864 6
-3.227747 -0.83897871 266.29227 8
33.928226 -0.619955 266.24191 7
33.772812 -0.02683115 266.39389 8
33.74791 0.15024841 266.23602 8
33.718388 -1.806886 266.71921 5
14.471195 -1.6616681 266.70209 2
-3.3068218 -1.6547316 266.95935 7
33.831791 -1.1110615 266.90222 6
33.793686 -0.65313905 266.96164 7
33.826904 0.0022448301 266.88449 8
14.656146 -2.116739 267.12018 0
14.67211 -1.8101283 267.10391 1
14.605266 -1.6642737 267.0997 2
-3.3100891 -1.6761482 267.39865 7
33.728546 -1.6763663 267.26028 5
34.11441 -0.66937351 267.28998 7
14.571508 -2.1967704 267.40399 3
14.724821 -2.0639038 267.56918 0
14.674733 -1.6888562 267.56723 2.3333333
33.788383 -1.2578814 267.45859 6
33.665344 -0.13498229 267.41357 8
14.612455 -2.1483662 267.64117 2
14.60935 -1.8823142 267.64594 3
33.853897 -1.2446072 267.7951 6
33.903732 -1.1443797 267.65485 6
33.882912 -0.69003499 267.64294 7
33.739109 -0.20753795 267.77942 8
-3.2893753 -1.6969529 267.83661 7
-3.1370964 -0.91315782 267.96085 8
14.696654 -1.8329283 268.17969 2
14.705352 -1.6819637 268.14612 3
14.59196 -1.4785588 268.17441 4
13.966443 -0.66531843 268.09995 8
14.818562 -2.4247785 268.38977 0
14.735034 -2.0949023 268.27826 4
14.741476 -1.7825284 268.24176 5
14.733786 -1.4770197 268.31909 5
34.011528 -1.1735775 268.23404 6
33.763245 -0.25932986 268.3132 8
33.882492 -0.17426503 268.3407 8
14.793244 -2.042892 268.4339 1
-3.1965866 -1.7226152 268.43689 7
14.797088 -1.7314618 268.49985 3
14.810484 -1.3820589 268.55063 5
33.842751 -0.75557536 268.44571 7
14.764744 -2.0875628 268.60501 1
11.322299 -1.9823838 268.69217 4
14.763517 -1.9086736 268.61194 2
10.663088 -1.7829169 268.66608 5
11.46415 -1.6898004 268.71445 5
13.920643 -1.6831739 268.76443 3
33.883896 -1.7422279 268.62915 5
10.66473 -1.469043 268.67865 6
11.504666 -1.4465632 268.69318 6
14.700804 -1.5427871 268.68054 4
11.476528 -1.1745312 268.70807 7
13.661676 -1.2488613 268.82211 7
33.902737 -1.3425615 268.81476 6
34.190075 -1.2858349 268.85147 6
34.248207 -1.2125907 268.91357 6
13.602819 -0.90340024 268.93848 8
14.13621 -0.89007294 268.92987 8
33.892666 -0.80717331 268.87299 7
33.891331 -0.74863517 268.84344 7
14.134307 -0.55793142 268.99817 9
33.693443 -0.28326273 268.82144 8
34.000061 -0.25633806 268.90775 8
34.005501 -0.19685501 268.8728 8
11.517073 -2.0005333 269.09143 4
14.768647 -2.131506 269.08401 1.5
14.129965 -1.6444669 269.07639 3
11.473682 -1.4333956 269.1051 6
14.166606 -1.2729886 269.08557 6
14.297211 -1.277212 269.10394 6
13.975807 -1.0879103 269.07623 7
14.269054 -0.91112673 269.01996 7.5
34.206787 -0.82005072 269.11264 7
14.219971 -0.69824302 269.04086 9
13.894285 -2.019675 269.30261 1
11.524786 -1.7489049 269.3472 5
14.863262 -1.7630869 269.35449 3
14.87809 -1.5502174 269.32547 4
11.508776 -1.2168456 269.35342 7
34.351582 -1.3061762 269.32797 6
14.339215 -0.98496258 269.20709 7
14.925089 -0.94282514 269.35016 7
34.172592 -0.76412964 269.34082 7
14.883484 -2.1583173 269.54883 1
14.846184 -1.9662254 269.51706 2
34.45649 -1.8949373 269.4317 5
14.724936 -1.7738459 269.47021 3
15.000506 -1.3556483 269.40558 5
14.955726 -1.1471379 269.50162 6
14.380623 -0.98961967 269.40317 7
14.42149 -0.85666764 269.42776 8
14.896712 -0.94679582 269.55313 7
34.171013 -0.79694957 269.56128 7
15.014997 -2.5026553 269.63733 0
14.8008 -2.1442976 269.79688 1
14.935608 -1.5194263 269.71524 4
34.243156 -1.4093877 269.67645 6
14.907577 -1.3524685 269.73181 5
34.267433 -0.84404159 269.71866 7
13.936934 -0.69719476 269.7612 9
14.940393 -0.74056298 269.61218 8
34.189899 -0.19069338 269.64789 8
14.870478 -2.5048637 269.84601 0
14.895695 -2.1971273 269.81018 3
14.743888 -1.9693284 269.89651 3.5
14.888262 -1.8747151 269.82831 4
34.00985 -1.870626 269.93738 5
14.971494 -1.5259213 269.81323 5
34.05497 -1.2823915 269.91098 6
14.955105 -1.1430091 269.85159 6
13.802691 -0.8872444 269.95746 8
14.963151 -0.98177671 269.89655 7
34.026344 -0.81862688 269.96118 7
34.008369 -0.79430211 269.9751 7
33.919949 -0.23309624 269.99307 8
14.819611 -2.2492299 270.19058 2
14.465458 -1.8242404 270.1821 4
14.850162 -1.9842155 270.0618 3
14.666005 -1.6402736 270.14999 6
14.896023 -1.7389824 270.15256 3.5
14.785185 -1.5231209 270.01764 4
14.828055 -1.5475121 270.1131 5
34.026115 -1.4244064 270.02612 6
14.844866 -1.3147033 270.12122 6.5
11.413635 -1.0154576 270.07486 8
15.028218 -1.0887008 270.19925 6.3333335
12.408128 -0.98948801 270.05771 8
14.531706 -0.76725245 270.18616 8
33.822651 -0.31321996 270.0538 8
14.972853 -2.4546075 270.37003 0
14.921215 -2.262157 270.30258 2
14.974854 -2.0439842 270.33035 2.6666667
14.873792 -1.8523088 270.32312 3
15.021619 -1.8076143 270.35556 1
14.918617 -1.6992168 270.29297 3.6666667
15.011265 -1.7982562 270.22171 1
14.978561 -1.563013 270.30417 5
15.045973 -1.460436 270.33997 3.75
14.445804 -1.3418123 270.26712 7
14.954723 -1.3384757 270.21313 6.5
15.019907 -1.2754273 270.22473 5
14.490517 -1.1611953 270.2554 7
15.070938 -1.1520383 270.32153 6.5
14.905544 -0.91728073 270.29782 7.6666665
14.420702 -0.69118303 270.3425 9
14.953035 -0.73804021 270.3436 9
14.943016 -2.0868886 270.51553 1.3333334
14.938913 -1.8523173 270.55231 4
14.909229 -1.6864283 270.48914 4.5
15.084379 -1.3433056 270.48956 5.5
14.948553 -1.1685981 270.45914 6
15.073882 -1.0089705 270.43198 7
14.283129 -0.96063155 270.42133 8
14.990155 -0.81065059 270.59143 8
15.025627 -0.93220675 270.43433 8
14.92612 -0.6519748 270.51547 9
14.988211 -2.4100399 270.72351 2
14.979962 -2.0640826 270.63281 2
14.890335 -1.8712398 270.74097 1.5
14.94376 -1.6338598 270.75653 5
14.969854 -1.5113733 270.61081 4.5
15.10815 -1.5416703 270.77173 3
15.073628 -1.3296984 270.73187 4.5
15.110641 -1.1190758 270.70755 6.25
14.983219 -0.88709962 270.61899 8
15.055857 -0.9858892 270.72217 7
14.981324 -0.73245358 270.70032 9
14.978987 -2.3140986 270.82404 2
15.002888 -2.3684216 270.93359 0
14.97419 -2.1560128 270.97549 3
14.960408 -1.881743 270.9624 2.3333333
34.105347 -1.483881 270.8808 6
14.966357 -1.3108701 270.87854 5
15.116765 -1.1217275 270.94794 6.3333335
14.946498 -0.91484529 270.89084 7.6666665
14.973841 -0.7179569 270.89703 9
15.137098 -2.005661 271.05624 0
14.976904 -1.6516857 271.16632 4
15.054969 -1.65409 271.19843 3
14.966185 -1.5345682 271.03598 5
15.068747 -1.4367932 271.13895 4
15.096185 -1.3378567 271.18066 4.75
15.061036 -1.0639689 271.19754 7
15.119925 -0.90436113 271.03439 8
15.050517 -2.2959521 271.29614 1.6666666
15.045315 -2.0490098 271.26382 3
14.975635 -1.8903782 271.28827 2.4000001
15.062154 -1.9487908 271.2294 1
15.111065 -1.6354158 271.39621 3
15.030841 -1.4573164 271.39667 6
15.083355 -1.3228924 271.27081 5.75
15.083531 -1.1936376 271.37201 7
14.958075 -0.8639918 271.39548 8
15.018545 -0.98909175 271.21185 7
15.066572 -0.79055095 271.27118 9
15.036513 -2.2997041 271.51801 1
15.086864 -2.0532286 271.53629 1
15.079129 -1.9021654 271.49597 1.3333334
15.037848 -1.7204621 271.45755 2.5
15.021245 -1.4372364 271.43381 4
34.172089 -1.5334533 271.55713 6
14.973061 -1.2617588 271.41724 5.5
15.099499 -1.2915725 271.48288 5.5
14.999012 -1.0261517 271.40921 7
15.145208 -1.0884082 271.59216 7
15.035519 -0.93562132 271.47284 8
15.095231 -0.75472701 271.5535 9
15.061114 -2.2711461 271.69604 0
15.067502 -1.8944933 271.70123 1.5
15.014374 -1.7133917 271.69705 4
15.080748 -1.4424844 271.69019 4
15.083333 -1.3185878 271.69727 5.5
15.031849 -1.0313276 271.78613 7
15.118762 -0.9473685 271.70978 8
15.04673 -2.2574911 271.96759 2
15.009595 -2.0126638 271.81 4
15.037432 -1.9075272 271.8533 1.5
15.147152 -1.6826262 271.90656 3
15.112233 -1.4315124 271.93546 4.3333335
14.950079 -1.3613417 271.8974 5
15.077852 -1.3242617 271.88739 5.5
15.042786 -1.1453598 271.9549 6.5
15.112063 -0.89152074 271.90552 8.333333
15.061798 -0.75406271 271.92603 9
15.123138 -2.2501945 272.1315 1
15.098663 -1.966501 272.00616 2.25
15.106314 -1.731316 272.13583 3.4000001
15.142397 -1.5117638 272.04907 5
15.251072 -1.5128113 272.13913 5
15.234551 -1.3003136 272.16293 5.5
14.941376 -1.0444027 272.01028 7
15.123291 -0.95231009 272.11777 7.6666665
15.19224 -0.7648018 272.17889 9
34.306778 -0.61401856 272.15802 7
15.128568 -2.3819838 272.37534 0
15.111261 -1.930656 272.20108 1
15.17713 -1.6047592 272.23523 3
15.148067 -1.410073 272.23679 4
15.247133 -1.5039198 272.36716 5
15.12723 -1.2983545 272.2814 5.5
15.269072 -1.2691545 272.29398 6
34.327385 -1.3090668 272.30072 6
15.146542 -1.0023377 272.33743 7
15.257904 -1.1118357 272.30734 7
15.15772 -0.934726 272.27563 8
34.220863 -0.94344407 272.20831 7
15.12598 -0.77315295 272.34305 9
34.363338 -0.77839184 272.25992 7
34.087456 -0.41573173 272.34564 8
34.18589 -0.35796905 272.36829 8
34.205311 -0.30178672 272.29178 8
34.274551 0.10138071 272.216 8
15.125896 -2.1013117 272.52493 1.3333334
15.23813 -2.0846696 272.59335 1
15.120633 -1.9375916 272.52762 1.5
15.145892 -1.7798257 272.57446 2.5
34.259983 -1.6094863 272.58005 6
15.088799 -1.5801808 272.58945 4
15.287824 -1.4854679 272.49405 3.5
15.146732 -1.2772763 272.5094 5.5
15.24804 -1.063452 272.5015 7
15.110548 -0.89438379 272.57309 8.5
34.425835 -0.74576747 272.42731 7
15.251814 -2.5023727 272.7453 0
27.049763 -2.3076558 272.76056 5
27.563467 -2.3178942 272.68799 5
28.112097 -2.3752983 272.72437 4
15.211052 -2.1775775 272.77969 0
15.214058 -1.9163418 272.72284 1.5
26.733757 -1.9119723 272.78839 5
27.401651 -1.9418516 272.72351 5
28.017563 -1.971512 272.67188 5
15.181618 -1.6081803 272.75482 3
27.038132 -1.7335224 272.79004 6
27.55965 -1.7340755 272.72818 6
15.167576 -1.4951549 272.69019 4
15.270701 -1.4604504 272.74585 5
27.407558 -1.5098515 272.78238 6
28.014242 -1.52236 272.72336 6
34.405888 -1.420458 272.66299 6
15.240067 -1.2722651 272.66751 5.833333
15.266785 -1.1539426 272.78372 7
15.198429 -2.4322577 272.87839 1
15.372128 -2.5438659 272.99561 0
26.179827 -2.4195323 272.89255 2
15.157823 -2.2093053 272.85345 2
24.99238 -2.2715139 272.96155 5
25.11694 -2.2603316 272.96567 2
25.394381 -2.2803066 272.94922 5
25.415558 -2.2815814 272.98871 4
27.111809 -2.30897 272.83353 4
27.45834 -2.3327665 272.80399 4
15.253433 -2.1288297 272.80759 1
26.118767 -2.1016054 272.8739 3
15.191018 -1.9052372 272.88672 3.3333333
15.22711 -1.9252617 272.80502 6
25.15799 -1.994589 272.99872 3
25.339725 -1.8608546 272.94739 5
26.151932 -1.8474933 272.89508 4
15.270909 -1.7141311 272.94009 4
25.254471 -1.7340498 272.99457 6
26.165936 -1.7303939 272.87335 6
15.27234 -1.4677868 272.95474 6
26.792171 -1.4976898 272.84482 6
15.156936 -1.3285835 272.98605 6
15.30569 -1.2387753 272.92111 6
25.239645 -1.2731158 272.83609 7
26.107718 -1.274652 272.92581 7
15.207535 -1.0008998 272.89856 8
27.302467 -1.0694156 272.995 7
28.354397 -1.0588768 272.80765 7
15.183884 -2.2261226 273.0448 4
15.247731 -2.3802047 273.19766 1
24.411016 -2.2710888 273.0582 5
24.735638 -2.2282538 273.05664 3
25.017012 -2.2551398 273.00073 4
15.150791 -2.053484 273.18533 2
15.25086 -2.0942845 273.07367 1.75
24.261881 -2.154829 273.13226 2
24.746418 -2.0194232 273.08911 3
15.178534 -1.8739398 273.0694 3
24.51606 -1.9158423 273.10947 4
24.646637 -1.8281695 273.10602 6
24.503981 -1.7285244 273.16034 5
25.184 -1.7578611 273.02399 4
15.128896 -1.5783772 273.02271 4.5
15.282739 -1.5890833 273.15704 5.25
25.11668 -1.4567068 273.04044 5.5
25.940498 -1.4948775 273.05942 6
15.209332 -1.3451788 273.16623 6
15.163052 -1.1655021 273.1153 7
15.331738 -1.1015747 273.09073 7
26.272757 -1.0036914 273.05951 7
27.222206 -1.0996234 273.06921 7
15.146977 -0.87733984 273.07809 8.333333
15.242236 -0.90903103 273.16089 8.5
26.346157 -0.95848042 273.07794 7
34.406345 -0.99632478 273.12445 7
15.276972 -2.2483368 273.33887 1
15.227345 -2.0631413 273.29636 2
24.228565 -2.0411599 273.36343 1
15.133533 -1.9274344 273.36633 3
15.252071 -1.8658586 273.28757 3
24.484383 -1.9084623 273.35651 2
15.282263 -1.6888559 273.31732 4
24.422337 -1.6966231 273.34308 3
15.383169 -1.4564574 273.31238 5
24.753571 -1.4826186 273.20816 6
15.374397 -1.2648518 273.37921 6
24.966412 -1.3112993 273.3056 7
15.327282 -1.0986745 273.38388 7
24.300762 -2.7634897 273.45215 0
24.291988 -1.8785574 273.57422 2
15.356208 -1.6289086 273.51953 4.5
34.343933 -1.6756607 273.42981 6
15.304386 -1.4880397 273.59845 5
15.333995 -1.3345571 273.46341 6
34.518814 -1.3581915 273.58774 6
15.29479 -1.0009681 273.41794 8
15.305374 -2.3547931 273.79031 1
24.17515 -2.2504687 273.77151 2
15.250231 -2.1244488 273.6922 2
24.285805 -2.0529912 273.70712 2
15.26107 -1.9365921 273.6748 3
24.291595 -1.8165493 273.70749 3
24.366869 -1.7646079 273.71359 4
15.268222 -1.0566701 273.68658 7
15.199361 -0.82434326 273.63248 9
15.283164 -0.82555401 273.69699 9
15.415773 -2.6559277 273.86325 0
15.28691 -2.341063 273.85547 1
24.200674 -2.2540417 273.8075 1
15.176802 -2.1002448 273.9007 2
24.270981 -2.0457635 273.88181 2
15.225292 -1.9288514 273.92215 3
24.33375 -1.9061695 273.99551 2
24.418182 -1.9132609 273.80908 2
15.298738 -1.6824484 273.90732 3.25
15.36721 -1.4366782 273.96552 4.75
15.401141 -1.2110488 273.95724 7
15.397272 -1.0981239 273.93713 7
15.330567 -0.95930398 273.92139 8
34.610783 -0.69399846 273.87897 7
15.303396 -2.6581469 274.01874 0
24.239819 -2.3192582 274.11023 2
15.300003 -2.0151305 274.05695 3.5
15.307724 -1.8165002 274.1925 4
24.361731 -1.8037276 274.00558 4
15.316672 -1.7378594 274.18723 5
15.451288 -1.6018181 274.01068 4
15.387005 -1.3977262 274.06921 5.25
15.449105 -1.253896 274.00934 6
15.3754 -1.1065221 274.05667 7.25
15.365973 -0.84570813 274.06833 8.5
15.41951 -0.89425755 274.06848 8.5
34.511032 -0.02399528 274.06976 8
15.408024 -2.472254 274.31845 1
15.303829 -2.2637293 274.28107 1.6666666
15.334193 -2.0308409 274.3623 2
24.337605 -2.0535746 274.28577 2.25
15.314064 -1.8563482 274.29626 2
15.497225 -1.6122136 274.3374 3
15.325901 -1.4462496 274.22034 4
15.516451 -1.4422681 274.33496 5
34.519287 -1.4184519 274.2435 6
15.487218 -1.2537417 274.38416 6.5
15.44747 -1.1006768 274.2489 7
15.340862 -0.90791225 274.29578 8.5
15.412395 -0.97022951 274.24164 8
34.634041 -0.92734671 274.24893 7
15.341946 -2.5725312 274.51279 0
24.381413 -2.4785352 274.41562 2
15.340481 -2.2688103 274.55048 1.5
15.281818 -2.0462708 274.50342 3
24.317804 -2.1565194 274.45544 1.6666666
15.411687 -1.9272445 274.48889 1
24.393114 -1.8632594 274.40677 4
24.471434 -1.8817828 274.49866 4
15.335016 -1.6574138 274.57635 4
15.415722 -1.6095914 274.51013 4
24.436016 -1.7876828 274.50665 3
15.419819 -1.4493526 274.45517 5
15.366741 -1.1014189 274.50565 7
15.475752 -1.1836421 274.50769 6.5
15.310454 -0.95232224 274.55377 8
15.426882 -0.90641916 274.45587 8
26.368647 -0.93060291 274.47455 7
34.46727 -0.74997377 274.55368 7
25.172813 -2.790467 274.79803 0
15.310063 -2.5657525 274.61972 0
24.607134 -2.5067677 274.76096 3
24.811674 -2.4744315 274.76321 2
15.323515 -2.2844591 274.72061 3
25.323685 -2.375778 274.7709 1
15.28808 -2.1211138 274.64005 3
15.40215 -2.1256132 274.72498 3
24.460739 -2.1342955 274.6875 3
24.636471 -2.0322924 274.728 4
25.075756 -2.17996 274.69461 3
15.385217 -1.8582746 274.72742 3.5
25.460918 -1.9252883 274.78271 4
24.761429 -1.6689048 274.66574 5
15.399204 -1.4781011 274.72864 5.5
15.461497 -1.4879447 274.6861 4.25
25.101402 -1.5849009 274.759 5
34.57222 -1.4295262 274.66144 6
15.363131 -1.3044516 274.77646 5.75
15.50226 -1.2767746 274.62744 6
15.308979 -1.0024148 274.7966 8
15.443279 -1.08077 274.65424 7.5
15.32208 -0.84482163 274.6803 9
34.457264 -0.36069047 274.71497 8
15.395265 -2.5602438 274.97083 2
24.570827 -2.4467344 274.80566 2
24.974785 -2.4808278 274.84781 2
24.508747 -2.2067385 274.88428 1
15.297738 -2.1767812 274.91031 1
24.580954 -2.1296062 274.83551 3
24.668493 -2.0284061 274.8219 2
25.282448 -2.0691409 274.83038 2
15.45023 -1.9437916 274.849 1
24.714605 -1.8711356 274.84015 4
25.208773 -1.876676 274.84067 3
15.374932 -1.7966 274.83054 3
15.447803 -1.6769221 274.88504 4
24.622551 -1.797174 274.84702 3
25.254421 -1.6531522 274.81415 4
15.532022 -1.450695 274.93466 5.1111112
25.403261 -1.5357406 274.88235 5
15.519264 -1.2513152 274.94907 6.5
15.53249 -1.0734928 274.94659 7.5
15.404314 -2.4586935 275.15085 2
15.372599 -1.9155127 275.10086 1.5
15.373552 -1.6868076 275.06091 3
15.397439 -1.4673359 275.12106 4.3333335
15.530972 -1.5705884 275.05804 4
15.516457 -1.2388914 275.1095 6.3333335
15.607077 -1.2660947 275.1958 6
15.47182 -0.91213888 275.0621 8.666667
15.456104 -2.4962368 275.263 0
15.452571 -2.2360599 275.30963 1.5
15.432638 -2.0566988 275.33533 2.5
15.383716 -1.9241958 275.34171 2.6666667
15.464527 -1.9829416 275.25513 1
15.51281 -1.695335 275.24289 4.3333335
15.478297 -1.4729887 275.24857 4.5
15.534234 -1.3132789 275.2811 6
15.503683 -1.0616918 275.21902 7.5
15.430227 -0.9327544 275.24249 8.5
34.539749 -0.92972732 275.34628 7
15.475103 -2.4689026 275.52298 2
27.295536 -2.5274427 275.58762 2
15.471056 -2.2636266 275.43466 3
15.347504 -1.6759456 275.56714 5
15.593128 -1.7648588 275.47311 3
15.541045 -1.4982625 275.48422 5
15.684033 -1.422192 275.46301 5
15.608839 -1.3212361 275.48288 5.833333
15.518724 -1.0815452 275.45825 7.5
15.463037 -0.9710083 275.47531 8
34.351646 -0.50717711 275.40726 8
34.446789 -0.41406551 275.51337 8
24.934084 -2.389883 275.74039 1
15.470215 -2.0613494 275.66818 2
25.088448 -2.1463161 275.78909 2
15.362645 -1.9729927 275.7511 2
15.487643 -1.8051522 275.61151 5
15.487257 -1.753531 275.75684 3
15.453608 -1.552011 275.76068 4
15.68615 -1.4179721 275.74173 5
15.506712 -1.070801 275.69754 8
15.61717 -1.1803882 275.67432 7
15.538457 -0.9050163 275.75226 9
15.518551 -2.4848659 275.87512 1
15.465649 -2.374321 275.95932 3
15.509038 -2.1047499 275.90576 0.66666669
25.542221 -1.9821616 275.82043 3
15.435846 -1.7751174 275.97037 3
15.496788 -1.512705 275.923 5.3333335
15.576065 -1.3288554 275.95074 7
15.606182 -1.2801286 275.90445 6.3333335
15.507322 -1.1037176 275.97461 7.5
15.660032 -1.0099139 275.98837 8
15.61794 -0.97823995 275.81247 8
15.515975 -2.3983817 276.05933 0
15.455545 -2.0002017 276.06671 1.5
15.512959 -1.827082 276.05515 5
15.649318 -1.7352916 276.08325 3
15.580285 -1.5509109 276.07648 4
15.596764 -1.3809228 276.07898 5.5
15.685211 -1.3011252 276.13077 6.6666665
15.546522 -1.0226272 276.17087 8
15.66656 -1.0680043 276.02533 8
34.583565 -1.1366438 276.18311 7
15.503394 -0.91752499 276.02463 9
15.669728 -0.86228621 276.05927 9
15.549228 -2.3282111 276.32233 1
15.527866 -2.1643319 276.34171 3.5
15.500934 -1.8976785 276.31491 2.3333333
15.64417 -1.6212454 276.27182 6
15.576605 -1.5895917 276.30737 4
15.705867 -1.5188153 276.26822 4
15.679934 -1.2864465 276.3248 6.25
15.56153 -1.0735807 276.23123 8
15.597553 -2.2961671 276.43469 0
15.590448 -2.0531328 276.55869 1
15.664222 -1.8067715 276.48297 3
15.543453 -1.7499104 276.54816 3
15.741131 -1.6781704 276.45667 4.5
15.573868 -1.5366551 276.50848 4.5
15.724001 -1.5989685 276.534 4
15.692687 -1.326888 276.49301 6.6666665
15.560428 -1.096607 276.45459 7.5
15.648953 -1.1100956 276.48886 7.6666665
15.581432 -0.82634437 276.49487 9
15.674541 -0.93476474 276.44598 9
15.440234 -2.1115274 276.67917 1.5
15.523475 -1.9243821 276.70404 5
15.714093 -1.3837197 276.65817 5.75
15.726814 -1.1080297 276.77673 8
34.689774 -1.0160654 276.73712 7
24.467728 -2.4745851 276.98145 1
15.589838 -2.3193111 276.82599 2
15.575347 -2.1050014 276.90973 2.5
15.622172 -1.6652 276.90448 4
15.664474 -1.4800264 276.92001 5.5
15.674448 -1.2417992 276.84021 7
15.754885 -1.0859498 276.93826 8
15.778792 -0.95567131 276.92273 9
34.54002 -0.5019154 276.85162 8
15.620056 -2.5576844 277.14297 2
27.210726 -2.5473847 277.17331 2
15.498297 -2.3701074 277.06558 2
15.630498 -2.2111282 277.06082 1
24.594011 -2.2820272 277.0405 2
24.849543 -2.2182562 277.17642 2
15.496146 -2.1229596 277.06891 3
24.91991 -2.037904 277.09912 3
15.576802 -1.9949163 277.1933 5
15.601079 -1.9126985 277.07077 3
27.211565 -1.9575744 277.15396 4
15.751265 -1.49191 277.09491 5.5
15.617353 -1.2723968 277.15033 7
15.734575 -1.099465 277.13251 8
34.786701 -1.0795935 277.02139 7
34.835911 -1.0920061 277.10406 7
34.840351 -0.62140143 277.14807 8
15.655663 -2.6303177 277.23187 0
24.737507 -2.4910364 277.34509 1
24.88806 -2.2044072 277.37329 2
25.703331 -2.3130403 277.38788 2
27.147053 -2.2174695 277.22208 3
25.75259 -2.0478227 277.34818 3
25.586508 -1.9938864 277.33002 4
25.872074 -1.8225043 277.24985 4
15.640745 -1.6578074 277.284 4.5
15.847054 -1.7069461 277.37683 4
15.752954 -1.3287274 277.29922 6.5
15.733799 -1.1923666 277.34317 7
15.642243 -0.95373154 277.354 8.5
34.843983 -0.54901314 277.23505 8
25.374264 -2.6780479 277.43854 2
15.642139 -2.5128865 277.56082 1
25.515888 -2.5339427 277.43427 1
15.540308 -2.3135188 277.47198 1.5
25.565762 -2.3307242 277.42261 3
15.484877 -2.1444159 277.44321 2
15.63422 -2.0644226 277.56168 3
15.579035 -1.9904087 277.50037 3
15.678896 -1.8431119 277.45874 4
15.811505 -1.6065004 277.40033 5
15.695824 -1.4197354 277.50861 6
15.836559 -1.5156053 277.46652 5.5
15.82021 -1.2630539 277.46655 7
15.757094 -1.1160333 277.40613 8
15.750031 -2.7291355 277.66064 0
15.875504 -2.7394018 277.79361 0
15.70415 -2.3612704 277.77985 0.5
15.640009 -2.1870537 277.78439 2
15.85065 -1.6235704 277.75027 5
15.723848 -1.5293441 277.76077 4.5
15.701818 -1.1376253 277.76691 7.5
34.883202 -0.46590245 277.70523 8
15.662424 -2.4304228 277.97644 4
15.679316 -2.3258438 277.95563 1.5
15.586723 -2.1104467 277.80243 1
15.707823 -2.0072994 277.9024 3
15.592037 -1.8103878 277.82755 4
15.644289 -1.9404918 277.89188 2
15.754839 -1.7422349 277.9556 4.5
15.754244 -1.5211201 277.85327 5
15.755877 -1.262638 277.84607 7
15.817833 -1.3608651 277.85233 6
15.702724 -1.0948923 277.90466 7.6666665
34.909981 -1.1326914 277.85794 7
15.648073 -0.98551619 277.87515 8
34.735115 -0.65596485 277.85745 8
15.701545 -2.4453452 278.00659 1
15.686796 -2.2270732 278.01221 2
15.691901 -2.080519 278.0769 3
15.707881 -1.8274088 278.01575 4
15.758351 -1.7363582 278.15359 5
15.857489 -1.6467115 278.02277 5
15.701315 -1.5026376 278.02798 5
15.833073 -1.5036429 278.09311 6
15.732482 -1.3302376 278.16113 7
15.858009 -1.3655038 278.05112 6.1666665
15.710618 -1.0938119 278.15747 8
15.815523 -1.1984005 278.06253 7
15.680574 -0.99656153 278.16309 8
15.82137 -2.7597089 278.36151 0
15.705506 -2.3076346 278.31335 1.5
15.680342 -2.0916348 278.31815 1
15.700111 -1.9366877 278.33014 2
15.852025 -1.7404079 278.36719 4
15.73077 -1.4100378 278.21744 6
15.86306 -1.5337622 278.32892 5.25
15.731956 -1.2050747 278.2244 7
15.858685 -1.3166392 278.24939 6.75
15.722385 -1.1499237 278.31528 8
15.831902 -1.0942482 278.27884 8
15.69982 -0.96865857 278.3476 9
15.725484 -2.7595499 278.52255 0
15.70668 -2.3831515 278.53864 1
15.668031 -2.1330032 278.46927 2
15.814903 -1.8880825 278.44788 4
15.757416 -1.7723277 278.55713 4
15.819786 -1.6910921 278.50601 5
15.762197 -1.5087554 278.43826 5
15.862813 -1.4467067 278.51041 6
15.735182 -1.233789 278.54166 7
15.852635 -1.3128295 278.48395 6.5
15.727612 -1.1108251 278.49576 8
34.918598 -1.1555475 278.45154 7
34.979599 -0.5042485 278.48483 8
15.826363 -2.6046252 278.72812 2
15.720556 -2.1465914 278.65396 3
15.832304 -2.0643873 278.65948 1
15.844939 -1.9164335 278.66882 2
15.753632 -1.604032 278.63361 5
15.892327 -1.7943542 278.66776 3
15.798035 -1.4333873 278.68042 6
15.907121 -1.5553854 278.71722 4.3333335
15.851067 -1.3368912 278.68353 7
15.845158 -1.1393998 278.77484 8
15.745508 -2.6625233 278.83887 0.5
15.728963 -2.4149656 278.89212 2
15.736498 -2.2199912 278.95874 2.25
15.83284 -2.3506956 278.87888 0
15.813389 -2.1862884 278.94318 5
15.879932 -1.9491946 278.87527 3.3333333
15.95072 -1.7470077 278.90186 4.25
15.947304 -1.5769589 278.92328 5.5
15.976923 -1.3536412 278.93384 7
16.006012 -1.3837228 278.8898 6
15.796469 -1.0058059 278.8168 9
15.900089 -1.1356778 278.93939 8
34.948093 -0.94563973 278.97916 7
15.7925 -2.5808244 279.05673 4
15.802329 -2.4512873 279.09366 2
15.810555 -2.2179184 279.07339 3
15.756992 -2.1088951 279.01355 1
15.88682 -2.0853133 279.15616 1
15.942482 -1.7461717 279.0766 3.3333333
15.867841 -1.4813883 279.07495 5.5
15.794514 -1.2908717 279.19766 7
15.813473 -1.2503911 279.16357 7
15.816864 -1.0773082 279.05261 8.5
34.787407 -0.47710311 279.07892 8
15.754557 -2.1314297 279.336 1.5
15.818312 -2.0385919 279.30838 4
15.825585 -1.9684741 279.37415 2.5
15.929512 -1.7394377 279.35446 4
15.947639 -1.5308365 279.2998 5.1666665
15.877636 -1.38225 279.36646 6.25
15.778499 -1.0310405 279.25897 9
15.867857 -2.6495852 279.44138 0
15.853246 -2.5126328 279.55521 2
15.851714 -2.2483933 279.46252 2
15.715884 -2.1153057 279.51715 2
15.919311 -2.1157947 279.52646 1
15.857179 -1.9350249 279.54657 3
15.923261 -1.6655037 279.53864 5.25
15.923077 -1.4769202 279.51425 5.5
15.854576 -1.1562797 279.41364 8
34.957832 -1.0705285 279.56024 7
15.886947 -2.6107354 279.7272 0
15.886189 -2.2831745 279.6424 2
15.869428 -2.1027484 279.69034 4
15.908199 -1.8712631 279.62479 3.6666667
15.872408 -1.7059567 279.61987 4.5
15.859563 -1.4301498 279.70831 6.5
15.754182 -1.2637351 279.62186 7
15.81885 -1.1079775 279.74103 8.5
15.893883 -2.5454817 279.89722 1.3333334
15.913399 -2.2667298 279.91449 0.5
15.776934 -2.0844121 279.85556 2
15.900575 -2.0173085 279.88528 2
15.897382 -1.9211526 279.90594 3
16.090847 -1.8506402 279.85992 4
35.001801 -1.8092992 279.94617 6
15.882519 -1.6502632 279.84338 4.8333335
16.061251 -1.6465396 279.9772 6
15.932311 -1.5160999 279.86938 5.5
16.046726 -1.464442 279.98767 6
