# .PCD v0.7 - Point Cloud Data file format
VERSION 0.7
FIELDS x y z intensity
SIZE 4 4 4 4
TYPE F F F F
COUNT 1 1 1 1
WIDTH 672
HEIGHT 1
VIEWPOINT 0 0 0 1 0 0 0
POINTS 672
DATA ascii
0.022332864 0.00048488798 0.22169158 0
-0.00026865327 0.056556646 2.491468 1
0.0031991745 0.10247497 4.790988 2
0.058114875 0.14192736 7.2906895 3
0.08803352 0.1727099 9.9883699 4
0.11903933 0.18128358 12.952028 5
0.1453678 0.16814511 16.2103 6
0.17518826 0.18565014 19.786406 7
0.2412089 0.25076824 23.448759 8
0.28344521 0.32656938 27.361782 9
0.34623966 0.40111822 31.434214 10
0.4136115 0.46878448 35.621983 11
0.46658325 0.52392417 39.922386 12
0.5517295 0.5733493 44.197487 13
0.67237616 0.61747807 48.505707 14
0.77333021 0.6547972 52.813 15
0.83555472 0.72543252 57.128319 16
0.91951722 0.77341694 61.464428 17
1.0034602 0.83784842 65.809998 18
1.1081206 0.89109105 70.174202 19
1.1824851 0.9531098 74.518684 20
1.2591208 0.99416709 78.829552 21
1.3880687 1.0314747 83.062805 22
1.4923836 1.0478163 87.184631 23
1.6188757 1.0853891 90.903572 24
1.7730588 1.1054312 94.325668 25
1.957033 1.1457938 97.329033 26
2.1530461 1.1687641 99.755936 27
2.2795677 1.1752712 101.85715 28
2.2786577 1.2004257 103.60184 29
2.0919616 1.2146735 105.161 30
1.683225 1.2499595 106.63298 31
1.0900092 1.2712376 107.92661 32
0.23802793 1.3059226 108.98116 33
-0.8320235 1.3353312 109.92018 34
-2.1219068 1.3887428 110.63573 35
-3.665077 1.39191 111.06986 36
-5.4387712 1.4613858 111.26667 37
-7.493463 1.5045426 111.35026 38
-9.8879614 1.5451941 111.30266 39
-12.519582 1.6024956 111.20801 40
-15.301009 1.6547281 111.16874 41
-18.372417 1.7222017 111.10247 42
-21.635727 1.7941934 111.00706 43
-25.037792 1.8824425 110.89738 44
-28.404474 1.9370272 110.79418 45
-31.782566 2.0143116 110.68076 46
-35.072208 2.0983708 110.57777 47
-38.299488 2.1679933 110.46929 48
-41.430538 2.2296147 110.32408 49
-44.476524 2.2966309 110.16064 50
-47.331699 2.3616395 109.99633 51
-50.135975 2.4382765 109.83574 52
-52.884243 2.4969146 109.69198 53
-55.528751 2.5453031 109.51723 54
-58.257973 2.6298347 109.25443 55
-61.036999 2.6713436 108.94474 56
-63.984516 2.7329524 108.58059 57
-66.978142 2.7966969 108.21432 58
-69.955605 2.8630619 107.85104 59
-72.774963 2.9218824 107.48035 60
-76.043724 2.9819999 107.03501 61
-79.137154 3.0374098 106.60046 62
-82.349228 3.0876901 106.11889 63
-85.708977 3.1614528 105.63831 64
-89.104546 3.2417233 105.15771 65
-92.524719 3.3187833 104.71603 66
-95.983887 3.3912492 104.28505 67
-99.403954 3.4744909 103.85391 68
-102.75585 3.5464301 103.46908 69
-106.09301 3.6511011 103.04628 70
-109.3838 3.7507374 102.64656 71
-112.53233 3.8619826 102.18942 72
-115.593 3.9698977 101.7399 73
-118.62474 4.0999565 101.25399 74
-121.60307 4.2244744 100.73142 75
-124.52242 4.3605928 100.19242 76
-127.40422 4.5088234 99.597748 77
-130.19133 4.6343532 98.87764 78
-132.94293 4.7626543 98.020782 79
-135.67618 4.8661623 97.0923 80
-138.2599 4.9645133 96.254456 81
-140.82228 5.052228 95.447533 82
-143.31279 5.1433887 94.702484 83
-145.73666 5.230866 94.033478 84
-148.10898 5.29884 93.443192 85
-150.4006 5.3697395 92.951675 86
-152.64999 5.46135 92.659943 87
-154.90092 5.5564909 92.576576 88
-157.09508 5.6368947 92.560303 89
-159.23006 5.7117105 92.380844 90
-161.33192 5.7535114 92.097832 91
-163.29666 5.8011141 91.701103 92
-165.20563 5.8408537 91.241875 93
-167.06715 5.8930907 90.76078 94
-168.98289 5.9287181 90.277252 95
-170.99445 5.9572144 89.691818 96
-173.15681 6.0017567 89.002449 97
-175.35229 5.9997711 88.259041 98
-177.5547 6.0470581 87.524162 99
-179.66731 6.0705271 86.832222 100
-181.71986 6.1034465 86.221832 101
-183.55347 6.1434798 85.715233 102
-185.18689 6.1619024 85.351768 103
-186.74974 6.2138624 85.158234 104
-188.28432 6.227633 85.277344 105
-189.78912 6.2469702 85.521599 106
-191.25014 6.2727313 86.012665 107
-192.69582 6.2736368 86.849693 108
-194.16095 6.3147101 88.061493 109
-195.57814 6.3575525 89.725212 110
-196.86903 6.4180059 91.818031 111
-198.09798 6.4590144 94.285934 112
-199.2196 6.4963379 97.047676 113
-200.2617 6.5488477 100.17949 114
-201.39244 6.5975857 103.42535 115
-202.58765 6.6556015 106.85536 116
-203.80138 6.6914086 110.27339 117
-205.03065 6.7274828 113.72066 118
-206.23256 6.7680063 117.15463 119
-207.3981 6.8224936 120.60344 120
-208.56273 6.8578248 124.06042 121
-209.66772 6.9129782 127.47968 122
-210.66096 6.934124 130.66776 123
-211.55324 6.9793916 133.64476 124
-212.30745 7.0030804 136.27408 125
-212.90804 7.0411887 138.54147 126
-213.42621 7.0723948 140.51015 127
-213.9176 7.1198034 142.35524 128
-214.24104 7.136765 144.15771 129
-214.2585 7.1751628 145.86311 130
-214.00305 7.1782923 147.46982 131
-213.43051 7.1811113 148.88403 132
-212.54276 7.191361 150.15668 133
-211.4442 7.1819301 151.1702 134
-210.18636 7.1603885 151.85222 135
-208.771 7.1444721 152.27037 136
-207.25354 7.1058612 152.55266 137
-205.53368 7.0632567 152.72356 138
-203.5697 7.0078945 152.84026 139
-201.26208 6.9747691 152.74002 140
-198.64873 6.9234195 152.67789 141
-195.75763 6.8469019 152.60382 142
-192.58592 6.7830997 152.64578 143
-189.14249 6.7071533 152.85815 144
-185.586 6.6433101 153.21297 145
-182.05814 6.5838423 153.6447 146
-178.41098 6.5351286 154.06584 147
-174.88383 6.4698734 154.49156 148
-171.31473 6.4161205 154.90941 149
-167.73526 6.372529 155.32819 150
-164.2159 6.3025184 155.73535 151
-160.69354 6.2518392 156.17372 152
-157.2184 6.1835561 156.62485 153
-153.6864 6.1158428 157.08548 154
-150.14349 6.0648556 157.52322 155
-146.52063 6.0139766 158.04094 156
-142.83026 5.9287891 158.53841 157
-139.06937 5.9099469 159.00507 158
-135.23625 5.8278928 159.40079 159
-131.38385 5.7767801 159.77464 160
-127.45374 5.7286916 160.13329 161
-123.56026 5.7116351 160.465 162
-119.65282 5.6674528 160.80513 163
-115.70982 5.5987997 161.13455 164
-111.83784 5.569005 161.47377 165
-107.94219 5.5282245 161.82507 166
-104.06521 5.4816308 162.14398 167
-100.20873 5.4574895 162.45233 168
-96.335518 5.4187784 162.82919 169
-92.485344 5.3821063 163.19183 170
-88.611115 5.3561006 163.63506 171
-84.721962 5.3730946 164.06351 172
-80.743233 5.3337431 164.45883 173
-76.821815 5.3127604 164.89978 174
-72.863876 5.282084 165.31158 175
-68.888184 5.2683892 165.72917 176
-64.912727 5.2439313 166.0705 177
-60.884834 5.2032752 166.38495 178
-56.885406 5.1882195 166.69148 179
-52.884129 5.1765618 166.98106 180
-48.904209 5.1406717 167.25269 181
-44.99453 5.1657443 167.47089 182
-41.120495 5.1545606 167.65051 183
-37.348869 5.1162157 167.87325 184
-33.628052 5.1111236 168.04697 185
-30.122171 5.07653 168.16296 186
-26.710352 5.0654516 168.26649 187
-23.516594 5.0556812 168.34381 188
-20.454685 5.0095396 168.47366 189
-17.550014 4.981245 168.63496 190
-14.765851 4.9780626 168.81129 191
-12.137797 4.9402237 168.97375 192
-9.763998 4.9320846 169.15694 193
-7.6841359 4.9139199 169.35754 194
-5.8639007 4.9074259 169.59474 195
-4.1236186 4.8812399 169.9221 196
-2.6627746 4.8843403 170.31934 197
-1.3878119 4.8939309 170.7915 198
-0.18583667 4.8718739 171.40797 199
0.8516044 4.8800793 172.16774 200
1.8430409 4.868587 173.10422 201
2.6924627 4.8894033 174.32982 202
3.4239585 4.9138999 175.90221 203
3.9822557 4.9261107 177.7878 204
4.3061185 4.9403057 180.02487 205
4.38627 4.985424 182.53325 206
4.3449445 5.0284433 185.26836 207
4.3097882 5.0566874 188.23463 208
4.3200855 5.1252456 191.41934 209
4.4188204 5.1827908 194.7545 210
4.4550366 5.2306404 198.008 211
4.5143404 5.2701044 201.30168 212
4.6167955 5.3062406 204.54224 213
4.7299275 5.3422794 207.75667 214
4.8656702 5.3673491 210.8037 215
4.9634242 5.401546 213.69096 216
5.0735927 5.4308357 216.21973 217
5.2062984 5.4574375 218.41147 218
5.3229733 5.4813242 220.35684 219
5.3500619 5.4986978 222.11948 220
5.2085462 5.5275044 223.79059 221
4.8048973 5.5388722 225.39096 222
4.1604657 5.5820327 226.84218 223
3.3353999 5.5791254 228.10454 224
2.2636266 5.6267166 229.28136 225
0.92039466 5.6303735 230.18629 226
-0.70128214 5.670927 230.95099 227
-2.7511468 5.7170205 231.38278 228
-4.9676371 5.7660384 231.65443 229
-7.493938 5.7993588 231.72308 230
-10.260331 5.84234 231.6644 231
-13.279563 5.881351 231.54605 232
-16.439228 5.92454 231.37398 233
-19.538435 5.9482026 231.25223 234
-22.677702 5.988296 231.18335 235
-25.897318 6.0343642 231.16005 236
-29.121765 6.068943 231.14262 237
-32.471851 6.1002564 231.09415 238
-36.014545 6.1572213 231.05708 239
-39.306728 6.1734586 230.98033 240
-42.451302 6.1903605 230.88924 241
-45.633598 6.2258363 230.79158 242
-48.729214 6.228044 230.68172 243
-51.854965 6.2660656 230.57294 244
-54.858147 6.2797661 230.49716 245
-57.803654 6.2900991 230.37921 246
-60.716705 6.3487191 230.28456 247
-63.58173 6.3844419 230.22296 248
-66.375587 6.4075613 230.16679 249
-69.157715 6.4382949 230.11189 250
-71.763527 6.4696603 230.04451 251
-74.331581 6.5125866 229.99734 252
-76.843208 6.5423298 229.9167 253
-79.334984 6.5631776 229.81491 254
-82.003281 6.596056 229.62944 255
-84.737366 6.6251731 229.40613 256
-87.648338 6.648962 229.06015 257
-90.761223 6.6859674 228.66109 258
-94.13224 6.6932411 228.18834 259
-97.670235 6.7066412 227.67757 260
-101.46096 6.7282443 227.21329 261
-105.35242 6.7374625 226.83516 262
-109.34032 6.776279 226.50096 263
-113.3986 6.8082042 226.15735 264
-117.47234 6.8479676 225.84966 265
-121.4291 6.8799133 225.57187 266
-125.34856 6.9117422 225.33594 267
-129.26645 6.93543 225.1526 268
-133.05376 6.9634242 224.95157 269
-136.80823 7.0308456 224.7655 270
-140.50967 7.0726304 224.55353 271
-144.38205 7.1088452 224.27608 272
-148.02312 7.1249719 223.87718 273
-151.73668 7.1080823 223.35228 274
-155.49707 7.1109591 222.66425 275
-159.19637 7.1131148 221.79689 276
-162.87662 7.1305099 220.8588 277
-166.60352 7.1553168 219.96014 278
-170.2717 7.1519332 219.183 279
-173.96501 7.1833901 218.53241 280
-177.59213 7.1967711 217.96332 281
-181.10602 7.2275567 217.42494 282
-184.3008 7.2401557 216.92392 283
-187.52962 7.2397995 216.40251 284
-190.69719 7.2160029 215.88094 285
-193.83212 7.2507091 215.39384 286
-196.93269 7.2249804 214.97816 287
-199.9846 7.2087879 214.59502 288
-202.9088 7.2182164 214.26642 289
-205.57233 7.2255836 213.95824 290
-207.7988 7.2274427 213.68286 291
-209.70544 7.2385435 213.47156 292
-211.46091 7.258976 213.23663 293
-213.00572 7.2687268 212.97006 294
-214.24553 7.2890878 212.7666 295
-215.45828 7.2857075 212.52643 296
-216.59366 7.2950497 212.27879 297
-217.82079 7.3006301 211.94719 298
-219.03867 7.2877994 211.52898 299
-220.32578 7.3099833 210.97112 300
-221.76785 7.311399 210.10472 301
-223.15918 7.3142781 208.98268 302
-224.56361 7.3049788 207.48045 303
-225.76372 7.2864895 205.67963 304
-226.83842 7.2724466 203.57474 305
-227.59041 7.2544856 201.18552 306
-227.97021 7.2109895 198.57436 307
-227.95821 7.1853256 195.82793 308
-227.65334 7.2030425 192.83688 309
-227.1203 7.1889663 189.84555 310
-226.30328 7.144958 186.83435 311
-225.28563 7.1271601 183.74171 312
-224.15096 7.128654 180.599 313
-222.95897 7.1736135 177.43492 314
-221.82935 7.1658959 174.24908 315
-220.82242 7.1708069 171.11162 316
-219.89281 7.1775036 168.01877 317
-219.06255 7.1704984 165.16409 318
-218.31502 7.1688824 162.61494 319
-217.5522 7.1652613 160.21768 320
-216.74519 7.1463037 158.01125 321
-215.80052 7.1409669 156.10643 322
-214.62726 7.1247787 154.49516 323
-213.18492 7.1178288 153.18384 324
-211.59 7.10882 152.26202 325
-209.74731 7.0829406 151.68582 326
-207.71156 7.0454669 151.39996 327
-205.45357 7.0260811 151.33003 328
-203.04272 6.9688792 151.4277 329
-200.38806 6.9105258 151.62727 330
-197.53821 6.8629708 151.90959 331
-194.45389 6.7935762 152.19786 332
-191.17419 6.7414818 152.52458 333
-187.69131 6.6885996 152.89928 334
-184.03778 6.6269331 153.37146 335
-180.27008 6.5561624 153.82449 336
-176.45665 6.4968944 154.28119 337
-172.68205 6.441081 154.73404 338
-168.91454 6.3806596 155.18619 339
-165.19084 6.3125448 155.66093 340
-161.51266 6.2605286 156.11497 341
-157.80655 6.2064204 156.57121 342
-154.11702 6.1341586 157.05197 343
-150.36168 6.0704269 157.55725 344
-146.5751 6.0118642 158.10185 345
-142.70432 5.9449124 158.62312 346
-138.72473 5.9082108 159.09392 347
-134.68991 5.8265495 159.49504 348
-130.53421 5.7960014 159.84793 349
-126.3217 5.7376781 160.23059 350
-122.0246 5.6978207 160.56137 351
-117.73927 5.6453671 160.94051 352
-113.44291 5.5879583 161.31479 353
-109.17215 5.5539684 161.69142 354
-104.90213 5.5066342 162.0611 355
-100.66844 5.4537601 162.40837 356
-96.397324 5.425302 162.86519 357
-92.116005 5.3865929 163.34506 358
-87.776924 5.3773847 163.91609 359
-83.410194 5.3589625 164.4809 360
-78.966011 5.3268032 165.01979 361
-74.456749 5.3178606 165.48679 362
-69.860565 5.2785649 165.91171 363
-65.219482 5.2565689 166.30785 364
-60.550037 5.2182364 166.65889 365
-55.907654 5.1912522 166.95177 366
-51.303761 5.1685181 167.23177 367
-46.725346 5.1691618 167.496 368
-42.216927 5.1611342 167.73148 369
-37.824173 5.1403346 167.91321 370
-33.697063 5.1135201 168.08075 371
-29.870697 5.0848117 168.19644 372
-26.25226 5.0617266 168.27055 373
-22.859646 5.0415125 168.38033 374
-19.706823 5.0109653 168.56825 375
-16.697859 4.9922814 168.91949 376
-13.877936 4.9786487 169.37146 377
-11.246999 4.9532676 169.84161 378
-8.8921928 4.9272451 170.25369 379
-6.8388309 4.9068909 170.53737 380
-5.181644 4.8945756 170.74294 381
-3.889204 4.8887167 170.87007 382
-2.9346364 4.8844461 170.96286 383
-2.1204679 4.8890882 171.03055 384
-1.3269492 4.8883653 171.09932 385
-0.52110714 4.8868661 171.15213 386
0.32746345 4.8855262 171.18036 387
1.4535285 4.8861732 171.22597 388
2.8878028 4.882185 171.25967 389
4.7135429 4.8957944 171.34413 390
6.8419504 4.8642054 171.45847 391
9.3069963 4.8218904 171.57991 392
12.059629 4.8090658 171.68533 393
15.078626 4.7861586 171.78857 394
18.380133 4.783711 171.8826 395
21.973099 4.7944274 171.94658 396
25.70801 4.7642307 172.00861 397
29.589098 4.7380314 172.09517 398
33.615692 4.7229238 172.21944 399
37.701565 4.6961212 172.32724 400
41.843258 4.6827097 172.43629 401
46.074574 4.6322613 172.55632 402
50.316402 4.6067519 172.62193 403
54.57777 4.540905 172.73801 404
58.825665 4.4924889 172.8549 405
63.104679 4.4624648 172.97884 406
67.351128 4.4370146 173.09998 407
71.639496 4.3893156 173.19284 408
75.927544 4.3469372 173.26241 409
80.277924 4.3290372 173.30176 410
84.611717 4.273118 173.32433 411
88.988525 4.2676907 173.34254 412
93.318153 4.2539353 173.28232 413
97.70237 4.2382846 173.17238 414
102.15981 4.217854 173.02884 415
106.56403 4.2134008 172.84889 416
110.98801 4.1955199 172.63478 417
115.43491 4.1785188 172.37894 418
119.93319 4.173665 172.10403 419
124.38133 4.1621246 171.86168 420
128.89044 4.1556187 171.57471 421
133.46455 4.1361561 171.27748 422
138.01009 4.1277757 170.96907 423
142.59882 4.0846171 170.6946 424
147.16068 4.0938025 170.38219 425
151.73386 4.0851998 170.08949 426
156.25488 4.065742 169.79414 427
160.76811 4.0912118 169.46614 428
165.19417 4.0560832 169.18738 429
169.59763 4.0763898 168.90448 430
173.80287 4.0796313 168.59773 431
177.92372 4.0947599 168.29907 432
181.92117 4.0515823 168.01779 433
185.84669 4.0543709 167.72798 434
189.63806 4.0411172 167.47011 435
193.40431 4.0375805 167.19983 436
197.09331 4.0486479 166.87553 437
200.62898 4.0188322 166.53783 438
204.16438 4.0443273 166.08226 439
207.53796 4.005652 165.53139 440
210.89252 4.0056205 165.01131 441
214.06773 3.9953384 164.51842 442
217.06206 3.9673016 164.2061 443
219.92508 3.963387 164.04756 444
222.57283 3.9097614 164.08972 445
225.09601 3.8934066 164.25081 446
227.33522 3.8671756 164.56931 447
229.46579 3.8588443 164.95665 448
231.42833 3.8291147 165.32741 449
233.15981 3.8062198 165.5943 450
234.66994 3.7957439 165.70023 451
236.02734 3.7860847 165.59523 452
237.27238 3.7733848 165.29984 453
238.35431 3.760844 164.81525 454
239.3752 3.7549379 164.2034 455
240.28438 3.7435091 163.48932 456
241.18182 3.7355769 162.71634 457
242.0574 3.7348819 161.91277 458
242.89537 3.7454119 160.96741 459
243.668 3.7586031 159.86063 460
244.3692 3.7392831 158.53621 461
244.98386 3.7255864 156.96031 462
245.49953 3.7130654 155.0096 463
246.06166 3.6949606 152.70044 464
246.5546 3.6900575 149.99817 465
246.90572 3.6657407 146.80304 466
247.22362 3.6589909 143.21648 467
247.54559 3.6349111 139.24263 468
247.86958 3.6077521 134.9254 469
248.16631 3.6141939 130.15341 470
248.47995 3.5845823 125.4499 471
248.72598 3.584336 120.69443 472
248.94048 3.5582819 115.95695 473
249.10381 3.5510271 111.27963 474
249.26129 3.5453115 106.63552 475
249.37575 3.5089729 101.95466 476
249.44888 3.5061619 97.559341 477
249.53288 3.5132101 92.948166 478
249.584 3.5154266 88.487923 479
249.703 3.48879 84.030304 480
249.87756 3.4857407 79.52652 481
250.07909 3.4306903 75.230576 482
250.30064 3.4265881 70.81176 483
250.50237 3.3699925 66.50106 484
250.72501 3.3618178 62.149677 485
250.90628 3.3088973 57.855293 486
251.02982 3.2756462 53.587532 487
251.16548 3.2523038 49.393909 488
251.3015 3.2135158 45.24395 489
251.44498 3.1749878 41.126274 490
251.66678 3.1436746 37.038292 491
251.8911 3.1008751 33.018097 492
252.12794 3.0651126 29.044947 493
252.2851 3.0365405 25.068668 494
252.27715 3.0075142 21.143005 495
252.11737 2.9622543 17.281946 496
251.70711 2.94962 13.513707 497
250.95415 2.9121385 9.7465458 498
249.84364 2.8988631 5.9553013 499
248.38664 2.8736103 2.2684748 500
246.51213 2.8441567 -1.2973878 501
244.27252 2.8346133 -4.7901869 502
241.77702 2.8746419 -8.233304 503
239.12492 2.8905292 -11.718929 504
236.40881 2.9556584 -15.235684 505
233.65005 2.9708478 -18.806734 506
231.01477 3.0284603 -22.429298 507
228.56319 3.047091 -26.07243 508
226.24782 3.0783157 -29.710348 509
223.91866 3.1254647 -33.393661 510
221.68425 3.1529734 -36.995506 511
219.48557 3.1728568 -40.508324 512
217.41934 3.1953709 -43.81242 513
215.4523 3.2259457 -46.780472 514
213.71001 3.2308969 -49.236935 515
212.09773 3.2480063 -51.366913 516
210.6431 3.2665691 -53.198715 517
209.24055 3.2849236 -54.758389 518
207.87459 3.2994034 -56.077488 519
206.61916 3.3353653 -57.036583 520
205.54715 3.3712416 -57.670353 521
204.50301 3.3979714 -58.149982 522
203.43323 3.4256196 -58.458542 523
202.28947 3.4496779 -58.675304 524
200.88472 3.4810588 -58.776482 525
199.33067 3.5225875 -58.752605 526
197.44998 3.5557389 -58.511658 527
195.21619 3.60095 -57.998867 528
192.66814 3.6134262 -57.139542 529
189.92348 3.6237984 -56.008888 530
187.07899 3.6876702 -54.32439 531
184.05998 3.7504098 -52.259773 532
180.93962 3.7935522 -50.066448 533
177.5809 3.8514349 -47.715214 534
174.01019 3.9142337 -45.239685 535
170.20265 3.9636867 -42.697895 536
166.21317 3.9878812 -40.134174 537
162.08723 4.0155177 -37.689034 538
157.87779 4.0584235 -35.30587 539
153.63956 4.0734649 -33.051159 540
149.42061 4.0989428 -30.903397 541
145.15317 4.1297512 -28.697866 542
140.87024 4.1695423 -26.535086 543
136.59 4.2221599 -24.36194 544
132.32274 4.2932024 -22.196461 545
128.14661 4.3053551 -20.096621 546
123.97561 4.3801646 -17.912125 547
119.87679 4.4008412 -15.760526 548
115.8574 4.3989081 -13.855494 549
111.65466 4.4067926 -12.089239 550
107.43889 4.4052229 -10.443874 551
103.2543 4.4194655 -8.850172 552
99.032532 4.4196949 -7.2480178 553
94.745697 4.4218087 -5.7729506 554
90.408798 4.4653897 -4.4391732 555
86.089516 4.5015254 -3.2361858 556
81.761017 4.5232549 -2.1617408 557
77.28672 4.5449538 -1.1027086 558
72.893097 4.5506144 -0.11077007 559
68.571693 4.5263491 0.82379711 560
64.319054 4.5218616 1.7103188 561
60.060383 4.510119 2.5561607 562
55.857487 4.468082 3.3563435 563
51.716839 4.4755373 4.1037903 564
47.598698 4.4628644 4.8010993 565
43.488045 4.4675961 5.440567 566
39.456207 4.4661222 6.0462351 567
35.562363 4.4667487 6.6105361 568
31.812763 4.4756675 7.1440511 569
28.227869 4.4509811 7.616704 570
24.916779 4.4225898 8.0321751 571
21.898615 4.397058 8.407856 572
19.180342 4.3747931 8.7501726 573
16.735079 4.3576813 9.0643826 574
14.579466 4.3539453 9.3080168 575
12.755651 4.3428516 9.4791965 576
11.289365 4.3524218 9.6544371 577
10.126021 4.37012 9.8124657 578
9.0872784 4.3720312 9.9837217 579
8.1558065 4.3832965 10.256516 580
7.6590261 4.3886571 10.411304 581
7.2962947 4.3771062 10.555629 582
6.6882339 4.378737 10.782795 583
5.757679 4.3824944 11.297797 584
4.6584635 4.384922 12.164515 585
3.5653327 4.3481407 13.37019 586
2.4496987 4.307322 15.08336 587
1.5369482 4.2456832 17.285164 588
0.81251305 4.1870708 20.007853 589
0.40124449 4.1426697 23.09132 590
0.35966289 4.1252532 26.533373 591
0.50911301 4.1039658 30.397148 592
0.71578968 4.096889 34.562077 593
0.94236535 4.0650058 39.120113 594
1.1681803 4.0119305 43.739674 595
1.4926476 3.9677184 48.302765 596
1.8128171 3.8773353 52.917774 597
2.1153946 3.8358464 57.378895 598
2.4082892 3.7868466 61.837334 599
2.6988742 3.739187 66.253601 600
3.0305722 3.6773474 70.617111 601
3.3134258 3.6162374 74.984543 602
3.606456 3.5533776 79.245964 603
3.9350815 3.4763117 83.516464 604
4.2529597 3.3776128 87.786118 605
4.5896745 3.3135743 91.926254 606
4.8845463 3.2280598 96.043953 607
5.1626339 3.1267731 100.13319 608
5.4187675 3.0703707 104.12718 609
5.6088467 3.0199196 108.18793 610
5.8666463 2.9838979 112.18323 611
6.0122285 2.8913541 116.24536 612
6.2379503 2.7252784 120.56548 613
6.4814782 2.6580429 124.87369 614
6.7419438 2.5812175 129.39868 615
7.0481329 2.4445255 134.03215 616
7.3939066 2.3456433 138.67368 617
7.7435374 2.2733691 143.13925 618
8.111414 2.1461308 147.69316 619
8.4756632 2.0615809 152.0845 620
8.8262663 1.9389194 156.42216 621
9.1623468 1.8418912 160.52269 622
9.4199867 1.7611629 164.51424 623
9.6763802 1.7044586 168.57016 624
10.085468 1.6408213 172.72638 625
10.398015 1.5776641 176.88663 626
10.676416 1.400911 181.15594 627
11.01382 1.2829181 185.42651 628
11.364276 1.2068666 189.76276 629
11.735533 1.1245722 194.25967 630
12.233209 1.0256287 198.85817 631
12.529074 0.93575758 203.26945 632
12.887114 0.83657736 207.58932 633
13.215659 0.71125948 211.73602 634
13.519987 0.61145627 215.61136 635
13.791793 0.55229384 219.36775 636
14.050056 0.47144231 223.03806 637
14.281883 0.37301558 226.81184 638
14.496473 0.28849629 230.4761 639
14.936169 0.2331382 234.62256 640
15.39188 0.10451183 238.45724 641
15.833808 -0.041253235 242.41676 642
16.262581 -0.16005929 246.68863 643
16.738949 -0.29079846 251.05699 644
17.182657 -0.42547807 255.60632 645
17.6929 -0.57780188 260.27048 646
18.164845 -0.71405292 264.95212 647
18.655254 -0.83601105 269.55154 648
19.130959 -0.98998368 274.06454 649
19.581121 -1.1269695 278.47021 650
20.041595 -1.260177 282.66135 651
20.479959 -1.3939182 286.59381 652
20.894901 -1.5217173 290.3764 653
21.316189 -1.6532396 294.05899 654
21.784475 -1.7718228 297.7749 655
22.21558 -1.8696648 301.52377 656
22.476547 -1.9943717 305.29419 657
22.752512 -2.1561902 309.28198 658
22.946104 -2.310497 313.32779 659
23.112797 -2.439141 317.5405 660
23.211143 -2.5756094 321.88535 661
23.23233 -2.7046049 326.39502 662
23.178539 -2.8781011 330.94522 663
23.135517 -3.0218349 335.67801 664
23.058842 -3.1883936 340.42078 665
23.005882 -3.3318267 345.24713 666
23.03565 -3.5165107 349.9888 667
23.036739 -3.677773 354.61154 668
23.109732 -3.8229272 359.24136 669
23.212124 -4.0164065 363.75485 670
23.324507 -4.1768999 368.16611 671
